# .PCD v0.7 - Point Cloud Data file format
VERSION 0.7
FIELDS x y z rgba
SIZE 4 4 4 4
TYPE F F F U
COUNT 1 1 1 1
WIDTH 1119
HEIGHT 1
VIEWPOINT 0 0 0 1 0 0 0
POINTS 1119
DATA ascii
1.3154254 -0.71072048 6.292562 4283123006
1.2651496 -0.6890313 6.2910709 4282004528
1.3118311 -0.68171608 6.2912717 4280823325
1.2582864 -0.67892706 6.290895 4283120675
1.2758476 -0.6798659 6.291976 4283976497
1.2834216 -0.64424253 6.2931924 4287270265
1.2970504 -0.64166915 6.293849 4282993211
1.315851 -0.62431026 6.2913499 4282203955
1.2962047 -0.60353917 6.2922277 4282796344
1.2653308 -0.58131075 6.2984066 4286807934
1.2757254 -0.57937098 6.2907758 4288979601
1.3655844 -0.57975495 6.2972832 4283386951
1.2784488 -0.54689103 6.296226 4287336319
1.2849824 -0.54372609 6.2957911 4287401600
1.3126107 -0.54755998 6.2951517 4281677351
1.2778895 -0.67945224 6.3032308 4281806635
1.2647717 -0.66515654 6.3047509 4281873458
1.2762401 -0.66360843 6.3017163 4283255368
1.2844801 -0.65011555 6.309937 4287200876
1.2405258 -0.63513798 6.3044982 4281411863
1.28319 -0.61589652 6.306891 4286678118
1.2920705 -0.61624575 6.3023887 4285626212
1.2371098 -0.5953536 6.3074813 4282529837
1.2413461 -0.59329218 6.3067756 4281543963
1.2824624 -0.57472372 6.3003602 4287468164
1.2922744 -0.56213814 6.3019018 4286415221
1.284672 -0.55125529 6.3090768 4287270525
1.3149922 -0.55020946 6.3050499 4282070835
1.2884443 -0.69728929 6.3108401 4287006587
1.2780827 -0.68608207 6.3174767 4281938479
1.2739527 -0.64043945 6.3109374 4286744688
1.2416632 -0.61740768 6.3110118 4283059515
1.2738107 -0.59533751 6.3111 4281940009
1.2858754 -0.59401506 6.3123717 4282334254
1.3300537 -0.59454292 6.3166828 4283255872
1.3019754 -0.57206559 6.3168268 4281083934
1.3043714 -0.56884193 6.3119555 4282006318
1.27458 -0.55057043 6.3139615 4286611821
1.2788273 -0.6878072 6.3247867 4287664509
1.3091282 -0.68497467 6.3220687 4281414438
1.2404869 -0.64767718 6.3202033 4281281045
1.2863318 -0.64542228 6.3203168 4287598978
1.2891349 -0.63774437 6.3212371 4287138679
1.3321744 -0.63779777 6.3223057 4283519561
1.3332944 -0.57291728 6.3212538 4281018142
1.35218 -0.5793789 6.3249183 4283124037
1.333147 -0.55332321 6.3247638 4282993729
1.294199 -0.68251467 6.3349934 4287860351
1.3368587 -0.68234164 6.3346677 4282597946
1.2996223 -0.67398769 6.3300781 4286151269
1.3502886 -0.61001199 6.33007 4282927164
1.3888603 -0.61023414 6.3311214 4286546551
1.3705105 -0.6052053 6.3365445 4281085216
1.3113924 -0.54619503 6.3333511 4280492053
1.3378729 -0.59035766 6.3501472 4283255618
1.3163209 -0.61851388 6.264791 4294967040
1.2598224 0.24650753 6.3182979 4280886818
1.265128 0.22619374 6.3255987 4280887589
1.2825326 0.22536944 6.3213282 4281282090
1.2875199 0.24776012 6.328073 4281150504
1.2821583 0.26801285 6.3208008 4280821539
1.2406183 0.28124774 6.327817 4280557342
1.2840677 0.28981733 6.3233771 4280492575
1.2770678 0.2974942 6.3258982 4280163612
1.282905 0.20626594 6.3396807 4280820771
1.2811902 0.22147399 6.3380685 4280755235
1.2793375 0.2366173 6.3363218 4280820771
1.2811247 0.25250468 6.3381138 4280689185
1.2939593 0.31367347 6.3367643 4280229404
1.2712698 0.19140078 6.3429565 4280689185
1.2901403 0.19741867 6.3404222 4281347882
1.2710338 0.20693961 6.3427792 4280689185
1.3036675 0.20721845 6.345211 4281083944
1.2707708 0.22246814 6.342576 4280689185
1.2998459 0.22208107 6.3415885 4281215273
1.2702897 0.23794602 6.3421578 4280623392
1.2987181 0.23740833 6.3405576 4281478701
1.2950163 0.24887531 6.3480463 4281347882
1.2696048 0.25336927 6.3415399 4280426013
1.2958661 0.25048697 6.3405166 4280822562
1.2711368 0.26928422 6.3430996 4280426013
1.2855985 0.26903749 6.3425179 4280623392
1.2958543 0.27437434 6.3493171 4281347885
1.2730752 0.28532958 6.3450589 4280360220
1.2913694 0.28597292 6.3481836 4280557599
1.2688198 0.29986849 6.3409328 4280360220
1.2913858 0.31724051 6.3483095 4280557599
1.323482 0.20503761 6.3574033 4281808947
1.2722657 0.21008098 6.3589606 4281544494
1.2701106 0.22541755 6.3568769 4281610287
1.2966719 0.22387789 6.3507376 4281479468
1.2698755 0.24110861 6.356699 4281347115
1.2682675 0.25649261 6.3551579 4281149480
1.2743859 0.2525098 6.3523817 4284704346
1.3090322 0.25514898 6.3505373 4281281322
1.2691412 0.27241462 6.3560805 4281018150
1.2964277 0.30134189 6.3523073 4280623904
1.2998254 0.3260583 6.3555026 4280624417
1.27639 0.17923622 6.3629432 4281873459
1.2765986 0.19508135 6.3632059 4281873459
1.3150811 0.19705236 6.3648233 4282138162
1.3499774 0.21568312 6.3680983 4285691246
1.3320662 0.2218989 6.360446 4285362020
1.3331544 0.26801392 6.3641357 4285033055
1.2503868 0.27860719 6.3618302 4284440916
1.3225653 0.27382755 6.363616 4280952357
1.3533409 0.25954032 6.3768864 4285098339
1.2009467 0.26813737 6.3756027 4281742896
1.2721175 0.27677476 6.3743377 4282531133
1.3312232 0.29165086 6.3720036 4281018150
1.289343 0.30430788 6.3785896 4280426009
1.3384684 0.31524333 6.3799782 4279769364
1.2842265 0.32862011 6.3702598 4280163354
1.2147638 0.27181751 6.3823414 4281940526
1.3214723 0.28369042 6.3868623 4281611307
1.3228801 0.30811685 6.3896341 4281480491
1.3409992 0.30993107 6.3814678 4280820771
1.2819344 0.18639356 6.3906498 4285559910
1.3276411 0.22464085 6.3996644 4282005812
1.3241512 0.2541475 6.3925114 4281939759
1.2958094 0.26610723 6.3980532 4282466621
1.2091924 0.30563584 6.3933401 4282467389
1.2781583 0.30510029 6.3938069 4284572764
1.3272603 0.31522626 6.3968754 4280887075
1.3223234 0.32468122 6.3958507 4281545774
1.3277949 0.19443339 6.4006438 4282071605
1.3231682 0.22113384 6.4011526 4282006320
1.3024553 0.25600457 6.407979 4281939504
1.3270886 0.25402442 6.4055514 4282137907
1.3260623 0.27364406 6.4092722 4282203958
1.2989877 0.28553081 6.4007282 4280755743
1.2213063 0.3257207 6.4081292 4282203705
1.3016608 0.27105883 6.419888 4282795587
1.3097388 0.29512787 6.4132848 4281939764
1.2228448 0.25641355 6.4250083 4282137907
1.3190054 0.25481197 6.4212694 4282860354
1.2264789 0.29989564 6.4215536 4282203701
1.2853119 0.30699426 6.4293666 4281084710
1.3431648 0.30416453 6.4249959 4281085222
1.2918109 0.33751103 6.4237089 4279374095
1.2824929 0.35010961 6.4214668 4280295195
1.3157506 0.22819801 6.4338074 4282663227
1.3375146 0.24206591 6.4397817 4282794558
1.3329103 0.26408365 6.4391356 4282072627
1.3496131 0.27069297 6.4389348 4281874478
1.1796118 0.29155973 6.4308352 4278387461
1.2008182 0.30685371 6.4382367 4278321668
1.3302341 0.30744654 6.4318504 4281874479
1.3107592 0.31944361 6.43256 4280821283
1.334796 0.22042778 6.4442792 4281874991
1.3528482 0.23628309 6.4460931 4282072115
1.3147187 0.27356905 6.4437137 4280756508
1.2693067 0.32040489 6.4466324 4280229145
1.3226429 0.32180357 6.4447041 4280360733
1.3192986 0.18059897 6.4560986 4282598711
1.3172781 0.2271978 6.450707 4281809195
1.3498831 0.22774899 6.4521313 4283123524
1.2340701 0.27675062 6.4542656 4282137908
1.2523866 0.27311462 6.457231 4283124551
1.322458 0.30785599 6.4557595 4280492060
1.2246748 0.32671887 6.4589744 4278321668
1.2883595 0.32953924 6.4576206 4280295706
1.3316764 0.20026602 6.4646225 4283452484
1.3480182 0.26452175 6.4668436 4283057733
1.2088162 0.30277893 6.4679537 4278321668
1.2144266 0.31415835 6.4613829 4278321668
1.2754236 0.22031954 6.4728808 4285361759
1.3313735 0.24077725 6.4782906 4282269493
1.330968 0.28038755 6.4776978 4281348905
1.2988248 0.30228731 6.4760499 4285164389
1.2558066 0.32735065 6.4792118 4281413675
1.2141252 0.22142975 6.4835296 4283059778
1.2961802 0.23914468 6.4813533 4285165408
1.2588476 0.26675177 6.4800091 4283783244
1.2124162 0.29365513 6.4828935 4278321668
1.2291071 0.24022612 6.4952488 4282532922
1.2372748 0.24237861 6.5047503 4283847755
1.2594 0.25807413 6.5048647 4282598968
1.271608 0.25686431 6.4139109 4294967040
-1.2384167 0.3983376 7.0563154 4286414701
-1.2648821 0.39241707 7.0680528 4286677627
-1.2170929 0.38815558 7.079061 4288257941
-1.2606328 0.39283311 7.0788422 4286479469
-1.1770511 0.39639699 7.0796251 4287663196
-1.1921954 0.40031201 7.0739961 4286809708
-1.2872183 0.41291186 7.0785184 4285952078
-1.1883011 0.41531664 7.0726695 4286808420
-1.186395 0.35188058 7.0874977 4292141021
-1.2668614 0.38939312 7.089911 4287599244
-1.1829846 0.38776943 7.0885243 4287926615
-1.1510227 0.39184919 7.0847015 4287068487
-1.2502582 0.41755426 7.0993977 4284703814
-1.1417012 0.397661 7.1089964 4287202931
-1.2848116 0.40210044 7.1075268 4285952082
-1.1916485 0.39779261 7.1183286 4289044602
-1.1657276 0.39702037 7.1111946 4286613886
-1.1975497 0.36609709 7.1230779 4287137599
-1.1792312 0.38739166 7.1252422 4293786100
-1.2963333 0.41996774 7.1267734 4285099358
-1.2439179 0.35747862 7.1379199 4285956473
-1.1973202 0.37491369 7.1304564 4287926092
-1.1752193 0.4018712 7.1386366 4286874726
-1.1659129 0.40556428 7.1375623 4286876285
-1.1562741 0.40666696 7.1371803 4289113252
-1.1474841 0.42179874 7.1398897 4288849817
-1.2339697 0.34727108 7.1402287 4286941306
-1.1846639 0.38564435 7.1491194 4287924859
-1.3187214 0.39769617 7.1459246 4285556813
-1.1734498 0.3933312 7.1430244 4287071867
-1.2859174 0.34886998 7.1562877 4287073924
-1.1562217 0.40494922 7.1541648 4287072121
-1.1355557 0.40681356 7.1562967 4287072902
-1.2062361 0.36009935 7.1647701 4287267414
-1.1639611 0.39815119 7.1611958 4287270015
-1.146415 0.39919296 7.1657462 4287270023
-1.1511335 0.40629283 7.1759081 4287994515
-1.1295798 0.40063697 7.1717529 4287401612
-1.1700879 0.40527123 7.1824722 4288784552
-1.2183429 0.38184151 7.1900997 4287203670
-1.1876745 0.3972224 7.19908 4287730569
-1.2161993 0.39329079 7.2161989 4288321936
-1.1707693 0.39992395 7.2113824 4287862415
-1.2019622 0.39610326 7.2276068 4287862415
-1.2109867 0.41208291 7.2222877 4287467653
-1.2227696 0.42339131 7.143961 4294967040
-1.2002763 -0.19594279 6.7873578 4286735616
-1.1829439 -0.1803232 6.7853274 4287260422
-1.194934 -0.17995685 6.7802901 4286275840
-1.1948556 -0.16463777 6.7801127 4286077696
-1.1822882 -0.16489641 6.78438 4286998784
-1.2181056 -0.14996152 6.7896466 4285881856
-1.197188 -0.14951445 6.7830906 4286206720
-1.1835859 -0.1496492 6.7860308 4286866177
-1.2141088 -0.13427596 6.7844229 4286472967
-1.1994281 -0.13431364 6.7859473 4286601728
-1.1845268 -0.13433817 6.7872071 4287195913
-1.1996682 -0.11894524 6.7861862 4286930688
-1.1850096 -0.11897488 6.7877736 4286998273
-1.1871498 -0.19622548 6.7909961 4287064832
-1.1744285 -0.18109858 6.7952046 4287590665
-1.1723856 -0.16542594 6.7923679 4287197184
-1.1730032 -0.15003806 6.7931271 4286803712
-1.1721132 -0.13452995 6.7918487 4287198214
-1.1722341 -0.1191017 6.7919369 4287197188
-1.1805722 -0.1973699 6.8035846 4287196416
-1.1690357 -0.13536218 6.8094492 4287723784
-1.1668838 -0.11961763 6.8064165 4287724300
-1.2268249 -0.18884547 6.8118911 4286539264
-1.2186158 -0.18695764 6.8186951 4286274816
-1.208258 -0.18924522 6.8185382 4287394572
-1.2352424 -0.16837065 6.8155456 4286209536
-1.2285626 -0.16718341 6.8150501 4286538754
-1.1752888 -0.16725445 6.8181939 4287593758
-1.2361525 -0.15008478 6.8169703 4287129861
-1.1729902 -0.15132751 6.8149586 4287526670
-1.2287341 -0.14532366 6.8154111 4286672136
-1.2349429 -0.13163339 6.8152008 4286736902
-1.2064288 -0.18772383 6.8289337 4287524866
-1.1803223 -0.18357319 6.8251872 4287328256
-1.2215748 -0.16886313 6.8232894 4286603008
-1.2079856 -0.16834715 6.8249612 4287525897
-1.2237607 -0.15059932 6.8266978 4286603520
-1.2112951 -0.14568168 6.8241901 4287329808
-1.2245971 -0.13217069 6.8280358 4286801923
-1.2335939 -0.12373769 6.8241501 4286935044
-1.1961144 -0.19047922 6.8374281 4287461908
-1.1959502 -0.16834459 6.8371763 4287724587
-1.2078234 -0.15083732 6.8312235 4287985164
-1.2093036 -0.13240555 6.8335924 4287328515
-1.2198607 -0.12423469 6.8398805 4287198221
-1.1721945 -0.120712 6.8362546 4287330051
-1.2111245 -0.11393513 6.836494 4287328002
-1.1972108 -0.18887846 6.8442631 4287525635
-1.1990271 -0.14648962 6.8429704 4288512798
-1.202523 -0.20232479 6.8557711 4288119300
-1.2043784 -0.17094547 6.8557315 4288447522
-1.2043991 -0.13333574 6.8558784 4288052497
-1.2071362 -0.12481625 6.8581529 4288512797
-1.2079111 -0.15243939 6.8614135 4288381981
-1.2028335 -0.18809071 6.879375 4287000320
-1.2618016 -0.17705797 6.870553 4286212354
-1.2399802 -0.17741317 6.8763762 4287000840
-1.1973453 -0.17087376 6.8826976 4286735616
-1.2039055 -0.13884082 6.880631 4288056421
-1.2023311 -0.19415379 6.8921509 4287463453
-1.2166653 -0.17305636 6.8986187 4288320103
-1.2146889 -0.15622015 6.8957763 4287860332
-1.202469 -0.14868185 6.8925252 4287196167
-1.2139273 -0.19328767 6.9022388 4287592452
-1.2289143 -0.1790399 6.9049444 4287857704
-1.1775988 -0.2048167 6.8262558 4294967040
-1.5920147 -1.6838235 7.9119039 4287205776
-1.5647441 -1.7611219 7.9258142 4283983738
-1.6888604 -1.7045517 7.9258046 4287992693
-1.687248 -1.6717198 7.9230204 4287992692
-1.5333844 -1.7629019 7.9484024 4285695647
-1.5713787 -1.7211424 7.9445925 4283852407
-1.5817845 -1.7673559 7.9565825 4284315546
-1.628211 -1.7243232 7.9587474 4284576126
-1.5373995 -1.7229511 7.9593821 4285169814
-1.5762068 -1.6786904 7.9581056 4283326572
-1.6755255 -1.6614459 7.9595351 4287925620
-1.5313009 -1.7307099 7.9693341 4285892246
-1.6763273 -1.7253066 7.9607892 4287532401
-1.5838143 -1.7248312 7.9618416 4282341994
-1.5018847 -1.716853 7.9619799 4286024337
-1.5161339 -1.7026249 7.9654689 4285958800
-1.6760949 -1.6935527 7.9604702 4287597678
-1.5405009 -1.6816757 7.9678097 4284643465
-1.6075026 -1.6488664 7.960423 4286680213
-1.5781615 -1.6327821 7.9632473 4283719787
-1.6333671 -1.7752303 7.9724936 4284309641
-1.6646992 -1.7500616 7.9755421 4284704093
-1.5328687 -1.6843936 7.9735184 4285301134
-1.5417937 -1.6381475 7.9711852 4284577415
-1.5335277 -1.6369383 7.9749637 4285299595
-1.6692145 -1.7197638 7.984848 4283981140
-1.593959 -1.6913689 7.9890451 4281353303
-1.5221434 -1.6483828 7.9861956 4285564045
-1.6602184 -1.7428919 7.9905839 4287006853
-1.643598 -1.6962858 7.9988542 4281417291
-1.6720997 -1.6874851 7.9908247 4284308299
-1.5631528 -1.7449526 8.002491 4285169038
-1.5323933 -1.7356499 8.0099478 4284972171
-1.6719016 -1.7221036 8.0067205 4284440656
-1.6686819 -1.7204996 8.0065165 4285426267
-1.5638483 -1.7081333 8.0038481 4284841107
-1.5263525 -1.7082975 8.0033503 4285036432
-1.6727043 -1.6935813 8.0079536 4285160248
-1.564423 -1.6711398 8.00492 4284709522
-1.5261186 -1.670368 8.00249 4284511115
-1.5652844 -1.6344359 8.006671 4284314506
-1.619096 -1.7585475 8.0199556 4281020984
-1.6074414 -1.7527323 8.0187349 4283326842
-1.5588689 -1.7429562 8.0126982 4285562236
-1.5762837 -1.7364606 8.0144424 4285037968
-1.5390043 -1.7335383 8.0148735 4285102473
-1.6489291 -1.729413 8.0191669 4280427814
-1.6178243 -1.727533 8.0175314 4281284159
-1.6711922 -1.6912286 8.0113201 4285423425
-1.6485609 -1.699463 8.0183754 4279045903
-1.6172588 -1.697381 8.0163727 4281217849
-1.5889432 -1.6987085 8.0196924 4284311154
-1.5774567 -1.6965609 8.0152979 4284708495
-1.540064 -1.6991038 8.0173492 4284839820
-1.5352138 -1.6968286 8.0178986 4284642954
-1.6491474 -1.6705811 8.0192566 4285898411
-1.6174307 -1.6680835 8.0165339 4281942602
-1.6030111 -1.6560727 8.0132904 4281680986
-1.6176585 -1.6388406 8.0167942 4281876811
-1.5903605 -1.7594602 8.0225782 4284705914
-1.6182183 -1.7427161 8.0294838 4282799988
-1.561437 -1.7306209 8.024765 4284642946
-1.6122974 -1.7204609 8.0296564 4285368237
-1.5894711 -1.7288536 8.0208044 4284312437
-1.6171608 -1.7056147 8.0272999 4283062123
-1.5775033 -1.7011476 8.0200424 4285168529
-1.5612998 -1.7008978 8.0243607 4284511106
-1.61 -1.6799711 8.0240593 4285369510
-1.561697 -1.6713101 8.0268593 4284970109
-1.5894328 -1.6697556 8.0204401 4284246130
-1.5421244 -1.6657872 8.0220852 4284446606
-1.5791889 -1.6562251 8.0201979 4284839046
-1.5896914 -1.6405214 8.0207663 4284509818
-1.5615549 -1.6420807 8.0245428 4284379007
-1.6183006 -1.7365937 8.0352936 4281877324
-1.5832913 -1.7334844 8.0309763 4285234572
-1.6199799 -1.7061894 8.0386925 4282206546
-1.5841262 -1.7021993 8.0327644 4284905863
-1.5503765 -1.7005376 8.030818 4284708227
-1.6205641 -1.6735325 8.0346851 4284840886
-1.5850961 -1.6725371 8.0357351 4286024880
-1.551144 -1.6691903 8.0325098 4284839817
-1.6221937 -1.6763064 8.0431366 4282336085
-1.5955837 -1.6936979 7.9491258 4294967040
-1.1809042 0.38816711 6.739109 4285619508
-1.1621424 0.39379248 6.7337365 4285686587
-1.1459968 0.39436442 6.7362146 4285819199
-1.1303257 0.39518985 6.7395225 4285951306
-1.1109973 0.39422959 6.7369962 4286149206
-1.1673608 0.38879186 6.7414393 4285422899
-1.1533006 0.38918796 6.7431388 4285554740
-1.1364497 0.38823646 6.7411094 4285817399
-1.1237822 0.38932547 6.7447276 4285817399
-1.1142541 0.39202982 6.7528243 4285553460
-1.1032443 0.39406574 6.7590747 4284829473
-1.0873489 0.39362875 6.7584734 4284633116
-1.0875567 0.39784724 6.7615519 4288322695
-1.1439976 0.40914404 6.764019 4286808679
-1.1136256 0.4095349 6.7674556 4286808168
-1.2086363 0.41010165 6.7674084 4286084182
-1.2055445 0.42754328 6.7665353 4287272332
-1.0952418 0.35221213 6.7700834 4286277899
-1.0961145 0.36781102 6.7712679 4286343181
-1.2238576 0.38698447 6.7731857 4285620277
-1.2117922 0.38720432 6.7788973 4285291055
-1.2057055 0.38804653 6.7726407 4285948728
-1.1904367 0.38918886 6.7771463 4285620019
-1.0958209 0.3828522 6.7707701 4285949199
-1.084309 0.3847324 6.7767768 4286476315
-1.1791426 0.41088992 6.7731895 4285953114
-1.2046394 0.42037305 6.7762752 4287205512
-1.0917993 0.34243992 6.7880006 4286409477
-1.0903163 0.35710752 6.7857475 4286737929
-1.0883822 0.37150085 6.7828326 4286540813
-1.1983948 0.38808897 6.7820473 4285159467
-1.1229637 0.38877094 6.7871122 4284697874
-1.2355418 0.39504912 6.7897058 4286145851
-1.1874752 0.39015096 6.7885656 4284567075
-1.1794847 0.39236298 6.7885523 4285026855
-1.1227329 0.39097485 6.7857418 4284698400
-1.1036364 0.39038911 6.7843843 4286738977
-1.1000379 0.40395445 6.7802773 4287070543
-1.0879599 0.4122431 6.7845812 4287071857
-1.1123037 0.35841823 6.7989092 4286278663
-1.1127071 0.37674853 6.7996478 4287001623
-1.1749336 0.39151341 6.7930884 4284631841
-1.165431 0.39419904 6.795423 4285026596
-1.1599882 0.39176795 6.7944441 4284632093
-1.1452373 0.39263773 6.7945805 4284632093
-1.0914855 0.39330021 6.794919 4287134789
-1.0798643 0.3903597 6.7935395 4286346290
-1.1011219 0.40702513 6.7992296 4287005549
-1.0582048 0.41307491 6.7906322 4287006328
-1.1143591 0.34118187 6.8023229 4286673679
-1.1369895 0.3796573 6.8092952 4284698137
-1.0897901 0.37992117 6.8084517 4286278406
-1.2219362 0.39852637 6.8046131 4285357621
-1.1129824 0.39838463 6.8073854 4287070778
-1.074437 0.39470702 6.8037782 4287070049
-1.0629023 0.39722812 6.8095655 4286939239
-1.230563 0.40842155 6.8037992 4285424188
-1.085703 0.4087261 6.8019609 4287136872
-1.1193887 0.31403273 6.8199759 4287135525
-1.1194686 0.32514438 6.8108945 4286673425
-1.0965972 0.35189128 6.8187809 4286475011
-1.0943302 0.36651811 6.8153148 4286475525
-1.2412068 0.38466677 6.8167953 4284698661
-1.2268916 0.38531303 6.8193455 4284500509
-1.1426412 0.38280058 6.815093 4284303631
-1.1047451 0.38166842 6.8177109 4286476557
-1.0593834 0.39596832 6.8108969 4286742113
-1.2068667 0.40506554 6.8112364 4285225780
-1.1890724 0.40433565 6.8158727 4285162816
-1.144009 0.40365288 6.8108325 4284768828
-1.0783615 0.40969327 6.8153672 4286808945
-1.2247875 0.41206995 6.8182654 4285094971
-1.0673028 0.41169348 6.8152337 4286940270
-1.2389839 0.42210624 6.8107905 4287007874
-1.1537039 0.43113858 6.8190174 4288258457
-1.1267743 0.30978429 6.823174 4286871565
-1.1203049 0.3362841 6.8218594 4287266346
-1.1000648 0.33772638 6.8240418 4286540544
-1.1212425 0.3585867 6.8237853 4287266096
-1.1489179 0.36674851 6.8289919 4285027358
-1.109012 0.36531124 6.8250046 4287001355
-1.2121222 0.38577545 6.821353 4284566557
-1.1976147 0.38637167 6.8237581 4284434975
-1.183844 0.387328 6.8272314 4284369180
-1.1686015 0.38762286 6.8287473 4284369686
-1.1229126 0.38127199 6.8271747 4287398201
-1.1185114 0.38835549 6.8218284 4288057426
-1.1900774 0.40381351 6.8276243 4284699175
-1.1450253 0.40329623 6.82686 4284633124
-1.099197 0.40234214 6.8242993 4287200869
-1.1954747 0.4130199 6.8244839 4284897332
-1.144591 0.41358504 6.8256865 4284041499
-1.0528746 0.41111815 6.824903 4286480754
-1.1040467 0.32366309 6.8300729 4286541313
-1.114184 0.34918925 6.8338575 4286935817
-1.1227857 0.36571521 6.8315883 4287860046
-1.244867 0.38691035 6.8316674 4284961318
-1.2270951 0.3872149 6.8334002 4284763939
-1.2089835 0.38738102 6.8346453 4284566302
-1.1911453 0.38767743 6.8363514 4284763938
-1.1712207 0.38702777 6.834713 4284895522
-1.0899574 0.38800532 6.833096 4286805852
-1.2391493 0.40694621 6.8375468 4285557323
-1.1719275 0.40559793 6.835619 4284369947
-1.0823399 0.40492249 6.8355703 4287070822
-1.0610895 0.40533182 6.8379316 4287072368
-1.1737647 0.41519409 6.8362226 4284173347
-1.1432136 0.41369563 6.8327589 4284108577
-1.1581842 0.31490347 6.844162 4285686546
-1.1218256 0.33391607 6.8469653 4287001865
-1.1285022 0.3434428 6.8445802 4287530820
-1.1611638 0.35351935 6.8492126 4285884194
-1.1642566 0.36100131 6.8459044 4285684508
-1.1626307 0.37632 6.8435197 4284435463
-1.1014653 0.38911396 6.8447351 4287003736
-1.0821214 0.39220706 6.8462253 4286479197
-1.1257005 0.31680638 6.8535814 4287067147
-1.1624191 0.3353093 6.851233 4285687834
-1.0689622 0.39373541 6.8514185 4286281821
-1.0542994 0.39450702 6.8543644 4286544736
-1.1186146 0.40650332 6.8542838 4288323204
-1.0983489 0.43362704 6.8585176 4288456092
-1.1606457 0.32145572 6.8615217 4286017815
-1.1365509 0.3217667 6.8627977 4287399478
-1.1134998 0.35114107 6.8691688 4286540805
-1.1090319 0.36532006 6.8622875 4286277646
-1.2297559 0.38467216 6.8671923 4284763939
-1.213762 0.38482949 6.8683357 4284435229
-1.1670383 0.39132604 6.8697839 4284567573
-1.094643 0.39507329 6.8665137 4286741855
-1.1505356 0.41959327 6.8620996 4288323982
-1.1692519 0.32483107 6.8739419 4285884937
-1.116474 0.33614391 6.8737769 4286738436
-1.1705068 0.37037143 6.8765011 4285358366
-1.1999795 0.38599595 6.8725781 4284632861
-1.1149647 0.38448411 6.8712382 4284237081
-1.1022428 0.38630393 6.8775015 4287396959
-1.1250535 0.39271459 6.8771501 4286412089
-1.1188643 0.39995691 6.8783083 4287267174
-1.0800438 0.39726067 6.8749385 4286873189
-1.1640739 0.40917361 6.8733497 4284637499
-1.2100437 0.42096984 6.8771434 4287533954
-1.1286842 0.32662767 6.8844161 4287594277
-1.2242039 0.38338217 6.8889828 4285092138
-1.2036439 0.38274577 6.8873205 4285224748
-1.2068396 0.41054541 6.8823729 4284965954
-1.1777934 0.35081917 6.8906713 4285687321
-1.1326869 0.35094357 6.8926592 4287397154
-1.1317729 0.36562005 6.8979182 4287199244
-1.2032386 0.39742157 6.8953257 4284567584
-1.1370015 0.39520416 6.8922868 4286281536
-1.0959494 0.39148763 6.8941321 4286281051
-1.1772816 0.40358803 6.8972912 4284569119
-1.1790566 0.42717952 6.8991947 4288521113
-1.1355041 0.34797484 6.9044175 4287133198
-1.1813898 0.35456276 6.9066567 4285623845
-1.1297874 0.39985967 6.9051218 4286479713
-1.1110164 0.39608613 6.9053721 4287729274
-1.0827751 0.39327079 6.9002976 4286741341
-1.205632 0.40490043 6.9043145 4284370975
-1.1968744 0.4004882 6.9067512 4284832044
-1.0929481 0.41286999 6.905067 4288388752
-1.1414748 0.37760764 6.9106932 4286344219
-1.1291929 0.38298619 6.9193687 4284828186
-1.1890465 0.39829886 6.91891 4285096504
-1.1760689 0.39964318 6.9154005 4285688117
-1.1235276 0.390212 6.9183288 4286871119
-1.1204262 0.40141839 6.9153562 4286741856
-1.110033 0.40777028 6.9161434 4287332976
-1.1457613 0.39155284 6.9225855 4284631315
-1.1497998 0.40582111 6.8278041 4294967040
-1.2070476 0.38603571 7.0158367 4287795851
-1.1522878 0.36158755 7.0462694 4287069474
-1.1374458 0.36755568 7.0493398 4286608661
-1.1745378 0.38953266 7.0472584 4288652190
-1.1535912 0.3831583 7.0487847 4287135521
-1.1630117 0.38508648 7.0506697 4288521881
-1.2384167 0.3983376 7.0563154 4286414701
-1.1355064 0.40809128 7.051156 4287203184
-1.1617225 0.34458816 7.0638857 4287069210
-1.1471459 0.35350475 7.065681 4286345001
-1.2923095 0.39161882 7.0693126 4285559395
-1.2648821 0.39241707 7.0680528 4286677627
-1.1462554 0.41096753 7.0653391 4286940787
-1.2170929 0.38815558 7.079061 4288257941
-1.2606328 0.39283311 7.0788422 4286479469
-1.1770511 0.39639699 7.0796251 4287663196
-1.1921954 0.40031201 7.0739961 4286809708
-1.2872183 0.41291186 7.0785184 4285952078
-1.1883011 0.41531664 7.0726695 4286808420
-1.1241943 0.41344681 7.0776224 4286678390
-1.1734548 0.32809702 7.0858078 4286938395
-1.186395 0.35188058 7.0874977 4292141021
-1.2668614 0.38939312 7.089911 4287599244
-1.1829846 0.38776943 7.0885243 4287926615
-1.1510227 0.39184919 7.0847015 4287068487
-1.1379347 0.39524096 7.0822239 4287005041
-1.3017684 0.41571075 7.0821295 4284769611
-1.1251469 0.3982437 7.0933738 4286480241
-1.2502582 0.41755426 7.0993977 4284703814
-1.1417012 0.397661 7.1089964 4287202931
-1.1192697 0.39724267 7.1080871 4286677365
-1.2848116 0.40210044 7.1075268 4285952082
-1.1907088 0.31318015 7.1180801 4286807064
-1.1916485 0.39779261 7.1183286 4289044602
-1.1657276 0.39702037 7.1111946 4286613886
-1.1975497 0.36609709 7.1230779 4287137599
-1.1792312 0.38739166 7.1252422 4293786100
-1.2963333 0.41996774 7.1267734 4285099358
-1.2439179 0.35747862 7.1379199 4285956473
-1.1973202 0.37491369 7.1304564 4287926092
-1.1752193 0.4018712 7.1386366 4286874726
-1.1659129 0.40556428 7.1375623 4286876285
-1.1562741 0.40666696 7.1371803 4289113252
-1.1474841 0.42179874 7.1398897 4288849817
-1.2026041 0.31474629 7.1427903 4291680980
-1.2339697 0.34727108 7.1402287 4286941306
-1.1846639 0.38564435 7.1491194 4287924859
-1.1734498 0.3933312 7.1430244 4287071867
-1.1562217 0.40494922 7.1541648 4287072121
-1.1355557 0.40681356 7.1562967 4287072902
-1.2062361 0.36009935 7.1647701 4287267414
-1.1639611 0.39815119 7.1611958 4287270015
-1.146415 0.39919296 7.1657462 4287270023
-1.1511335 0.40629283 7.1759081 4287994515
-1.1700879 0.40527123 7.1824722 4288784552
-1.2183429 0.38184151 7.1900997 4287203670
-1.1876745 0.3972224 7.19908 4287730569
-1.2065636 0.40663281 7.1070952 4294967040
-1.2414125 -0.026839744 6.7783613 4286539013
-1.2269521 -0.072794676 6.7802958 4286670340
-1.2161506 -0.072803818 6.7867532 4286735104
-1.2291201 -0.057437517 6.7829704 4286604033
-1.2329065 -0.041973069 6.7876973 4286735108
-1.1756792 -0.10378668 6.7965164 4287526151
-1.2035336 -0.088250153 6.7910943 4287063045
-1.1919218 -0.088316746 6.796813 4286932480
-1.2057034 -0.072814569 6.7938576 4287260161
-1.2196567 -0.057362258 6.7911935 4286866177
-1.208672 -0.057302956 6.7976661 4287391745
-1.179242 -0.088364936 6.8012547 4287393793
-1.194777 -0.072824135 6.8005333 4287063808
-1.181749 -0.072826751 6.8045659 4286999040
-1.1984619 -0.057232559 6.805356 4287064064
-1.1841475 -0.05721062 6.8077302 4286867456
-1.229625 -0.041641235 6.803956 4285878528
-1.1689394 -0.041568406 6.8088579 4287065344
-1.1668884 -0.02602924 6.8059654 4286934275
-1.167101 -0.010418577 6.806181 4287197186
-1.1701524 -0.08848539 6.8107538 4287854346
-1.1707765 -0.07283695 6.8115344 4287328771
-1.1707116 -0.057177156 6.8113689 4287066113
-1.22291 -0.041392922 6.8162174 4285943808
-1.1904446 -0.041408878 6.8161612 4286537472
-1.1605885 -0.025601169 6.8195796 4287592973
-1.1563897 -0.010111044 6.8136396 4288185630
-1.1717491 0.0055398145 6.8124871 4287328008
-1.1559719 0.0055370941 6.8129797 4287198218
-1.1562231 0.021234684 6.8132534 4287066116
-1.15618 0.03690777 6.8131166 4286934529
-1.1569335 0.052680653 6.8140917 4286605312
-1.1654017 -0.057039294 6.8264556 4287592199
-1.2129734 -0.041226227 6.8245692 4286010624
-1.1626495 -0.041290879 6.822535 4287725322
-1.1993802 -0.025291769 6.8281555 4285880576
-1.1505452 0.038044155 6.8280106 4287264518
-1.167978 -0.072877184 6.8301315 4287592456
-1.174336 -0.0024126819 6.8385711 4288057422
-1.1532959 0.0065748664 6.8320723 4287462925
-1.1879324 0.022719979 6.83463 4286999041
-1.151912 0.02233161 6.830029 4287330312
-1.1636388 -0.024727 6.8469176 4285749776
-1.160018 -0.0088926433 6.8416967 4282922767
-1.1775192 0.0088102184 6.8453174 4292671231
-1.1475179 -0.0194037 6.7546511 4294967040
-1.5734391 -1.8912756 7.9347005 4283457904
-1.5475439 -1.8994738 7.9314103 4285167231
-1.5275896 -1.8895241 7.9329133 4282601053
-1.5208707 -1.861541 7.9395146 4284970369
-1.5305036 -1.8487141 7.9408216 4285694354
-1.5219072 -1.8150939 7.9421034 4287143087
-1.5315944 -1.8054111 7.9436355 4286091166
-1.5540791 -1.9188107 7.9523807 4281811278
-1.4917171 -1.9013638 7.959693 4281613382
-1.58112 -1.8562986 7.9552474 4282536806
-1.5099888 -1.9118823 7.9652448 4281282620
-1.5848407 -1.8159901 7.9650803 4282667878
-1.4943076 -1.8149927 7.9666996 4284313725
-1.6047405 -1.9304551 7.9727488 4281948513
-1.5196302 -1.9210322 7.9706268 4281020987
-1.5499846 -1.9156128 7.9727187 4282007881
-1.5613369 -1.886785 7.9715462 4285036678
-1.5193738 -1.8867726 7.9735336 4282535001
-1.4955509 -1.8616228 7.9705257 4282799973
-1.5041757 -1.8511981 7.9764256 4285233535
-1.6357834 -1.8231943 7.9790587 4286291619
-1.562133 -1.9309105 7.9856429 4282073681
-1.5066171 -1.9203268 7.9888749 4282074446
-1.5271071 -1.8959548 7.9875932 4282666330
-1.4856533 -1.8928592 7.9855547 4281941579
-1.5572033 -1.8877349 7.9895458 4284773505
-1.5161877 -1.8829708 7.980052 4282666329
-1.4802614 -1.8849432 7.9828138 4281810761
-1.636533 -1.8692745 7.9812541 4281091685
-1.5656509 -1.850539 7.98311 4286089883
-1.5235007 -1.8504575 7.9849582 4284772736
-1.5199034 -1.8504642 7.9888105 4284181367
-1.5355285 -1.9378592 7.9994454 4281020220
-1.5944308 -1.9249141 7.9901328 4283654258
-1.4911593 -1.8860762 7.9971676 4282601561
-1.5315102 -1.8664061 7.9976187 4284508791
-1.4941099 -1.8637717 7.9942884 4282995035
-1.5593014 -1.852937 7.9942307 4285957782
-1.483795 -1.8522874 7.9913678 4283126880
-1.5655756 -1.8158942 7.9965172 4285958039
-1.5245354 -1.8144168 7.9942102 4285366414
-1.4858894 -1.8175339 7.9963188 4283917682
-1.5243214 -1.781056 7.9989867 4285695122
-1.6048338 -1.9405595 8.0002718 4283916401
-1.5041736 -1.9387201 8.0016155 4281348921
-1.6160926 -1.9031082 8.0016165 4280562757
-1.5700766 -1.9060056 8.0032024 4284773249
-1.571519 -1.8722831 8.0064583 4286022804
-1.4629394 -1.8786664 8.0091686 4282140243
-1.4878757 -1.8592774 8.0047398 4283061604
-1.4930713 -1.8401831 8.0026054 4283589743
-1.5350639 -1.8355222 8.0057268 4285234315
-1.4971874 -1.832426 8.0015087 4284048498
-1.4895136 -1.8193526 8.0096865 4284114807
-1.4999907 -1.8005573 8.0080929 4285036423
-1.4948348 -1.7939578 8.0075779 4285432465
-1.5626842 -1.7820122 8.0016699 4285563538
-1.5735965 -1.7764171 8.0044804 4285498778
-1.5293969 -1.7740682 8.0015306 4285367188
-1.575207 -1.9483075 8.0139837 4283257954
-1.6096042 -1.9111292 8.0105867 4282930533
-1.5420256 -1.9148325 8.0128736 4282995296
-1.5085125 -1.9128836 8.0108433 4281941066
-1.4777488 -1.9147683 8.0145779 4281941061
-1.6037219 -1.8992369 8.0113068 4282074968
-1.6138834 -1.8808429 8.0198488 4282602084
-1.5122517 -1.8860128 8.0188131 4283258721
-1.6474025 -1.8780943 8.01402 4283459955
-1.6228113 -1.8693196 8.0188732 4281023819
-1.6499591 -1.845443 8.019453 4283787376
-1.5739027 -1.8396825 8.0117865 4286155161
-1.4640379 -1.8347212 8.0122089 4283193960
-1.6470698 -1.8157841 8.0163479 4287744994
-1.5762329 -1.8068943 8.0169964 4286089111
-1.5376476 -1.803216 8.0116444 4285629585
-1.5388094 -1.7689986 8.0143509 4285432463
-1.5241234 -1.9380518 8.025836 4282074192
-1.5786641 -1.9208492 8.0210161 4286086542
-1.5810254 -1.8917961 8.0258579 4286811548
-1.5751407 -1.8823504 8.0201702 4289252063
-1.5460154 -1.8881397 8.0211668 4284970114
-1.4808466 -1.8870933 8.021368 4282336335
-1.609509 -1.8687218 8.0243835 4281943636
-1.582329 -1.8612729 8.0285835 4286681241
-1.5483857 -1.8591262 8.0261421 4285891987
-1.5146873 -1.8572024 8.0240479 4284444026
-1.4832199 -1.8582613 8.0265989 4283192674
-1.6170429 -1.8489591 8.0267096 4282865510
-1.6478153 -1.8300738 8.0285311 4284912295
-1.6114646 -1.8332423 8.0286093 4282076509
-1.549819 -1.8287874 8.0291986 4285892242
-1.5164074 -1.8273251 8.0277796 4285102469
-1.4845461 -1.8278902 8.0295773 4284246135
-1.619195 -1.8177297 8.0204268 4281744459
-1.5893137 -1.8172392 8.0209579 4285560709
-1.5608562 -1.8185544 8.0241213 4285759886
-1.5318171 -1.8191655 8.0262604 4285627270
-1.5025283 -1.81947 8.0279522 4284706166
-1.4732031 -1.8197392 8.0295935 4283980393
-1.5622829 -1.7908063 8.0266418 4285301130
-1.5335422 -1.7918314 8.0294104 4285365641
-1.6204151 -1.7896724 8.0224638 4280429098
-1.5907843 -1.78953 8.0235014 4285036159
-1.5775682 -1.7727768 8.0200176 4285628559
-1.5617759 -1.7606003 8.0255461 4284905862
-1.6164099 -1.9280328 8.0309067 4281810247
-1.6174045 -1.8970358 8.0329657 4281811276
-1.6488627 -1.8636141 8.0304193 4286755006
-1.6176847 -1.8650948 8.0336285 4282008656
-1.6279567 -1.8332189 8.0321884 4281023304
-1.6176369 -1.832734 8.0336504 4282337879
-1.5833319 -1.8303077 8.0307074 4286614939
-1.5786517 -1.8339025 8.0323219 4287931052
-1.6198527 -1.8164953 8.0328207 4282404957
-1.6185209 -1.8015016 8.0354929 4281283134
-1.6124969 -1.7965616 8.0307007 4281548364
-1.5836399 -1.7984331 8.0314398 4286155674
-1.5505289 -1.7974617 8.0307722 4285826193
-1.5176349 -1.7967225 8.0304785 4285563023
-1.5045137 -1.792524 8.0316877 4284971140
-1.485701 -1.7972227 8.0321875 4284641409
-1.5832816 -1.7657323 8.0308399 4285497486
-1.5503925 -1.7650468 8.030612 4285300109
-1.5819832 -1.7849697 8.0439072 4286814111
-1.554159 -1.9480743 8.0553284 4281416514
-1.5454012 -1.8392086 8.058569 4286813076
-1.5478579 -1.9116133 8.0693102 4285232249
-1.5487708 -1.8969027 8.0618038 4286023030
-1.5346366 -1.8989601 8.061554 4283524471
-1.5400388 -1.8526064 8.080411 4286418588
-1.5408458 -1.8001952 8.0841007 4286682273
-1.5640919 -1.902725 8.0912876 4286353302
-1.5688692 -1.8502064 8.10921 4287010722
-1.5581241 -1.8598109 8.0156584 4294967040
-1.3486563 -0.29276997 6.9136028 4286875511
-1.3495004 -0.27602696 6.9145761 4287071864
-1.3499073 -0.25918728 6.9150023 4286940789
-1.3495356 -0.24221893 6.9144554 4287138676
-1.260042 -0.20518541 6.9174943 4287989542
-1.348525 -0.31320536 6.9356461 4287204221
-1.3495848 -0.2962701 6.9369078 4287204474
-1.3502579 -0.27923298 6.9376783 4287137913
-1.3509405 -0.2621775 6.9384608 4287138169
-1.3512446 -0.24504417 6.9387631 4287335544
-1.3506504 -0.22777852 6.9379253 4287334773
-1.3325322 -0.21047747 6.9373221 4287531383
-1.2430831 -0.20994294 6.9356947 4287989257
-1.2151893 -0.19359559 6.9461079 4287329025
-1.3475325 -0.31666797 6.95716 4287204221
-1.3488132 -0.29953605 6.9587259 4287270267
-1.3480161 -0.22979693 6.9573593 4287269493
-1.3255973 -0.19712649 6.9516582 4288319564
-1.2238678 -0.19701132 6.9512453 4287527432
-1.3501823 -0.28238189 6.9604058 4287073402
-1.3508577 -0.26506871 6.9611912 4287203963
-1.3513391 -0.24770525 6.9617267 4287203960
-1.2322541 -0.18246599 6.9656816 4286806559
-1.2542906 -0.17819074 6.9677925 4285222923
-1.3671985 -0.27146229 6.9761591 4287664772
-1.3662634 -0.24755497 6.9746156 4287796098
-1.3466303 -0.23205397 6.9790201 4287203969
-1.2193997 -0.19624549 6.978312 4287723018
-1.2385147 -0.17868225 6.9755373 4286669833
-1.3483911 -0.32064092 6.9817562 4287270016
-1.3499501 -0.30328953 6.9837112 4287270015
-1.351848 -0.28595406 6.9861102 4287138939
-1.3529735 -0.26842731 6.9874973 4287269499
-1.3533413 -0.25074729 6.9878922 4287335545
-1.3480324 -0.22003697 6.9854088 4287992185
-1.3204167 -0.2098579 6.9876685 4287003703
-1.3069173 -0.22551772 6.9985623 4287333968
-1.2729882 -0.19727956 6.9964485 4288517973
-1.3500248 -0.23506857 7.0077128 4287269504
-1.2332969 -0.20081508 7.0013142 4287990301
-1.2752941 -0.19634916 7.0277972 4288714322
-1.2712137 -0.26767939 6.9680972 4294967040
-1.6865748 -1.4439021 7.9794579 4286085975
-1.5887064 -1.4503906 7.9917336 4285628044
-1.5915687 -1.404547 7.9995074 4285629070
-1.6698307 -1.4848715 8.0019989 4282269234
-1.6431643 -1.4874743 8.0078917 4285690473
-1.6693164 -1.4550245 8.0009708 4283586123
-1.6437403 -1.4586104 8.0087557 4282533187
-1.670171 -1.4264599 8.0022917 4282795842
-1.6444267 -1.4298271 8.0098114 4283256912
-1.6704991 -1.3973864 8.0027094 4284373317
-1.6698873 -1.3674717 8.0015135 4285162045
-1.6174822 -1.4911709 8.0157452 4282139215
-1.6178628 -1.46205 8.0162792 4282205518
-1.619051 -1.4336884 8.0182581 4281811013
-1.6458735 -1.4017156 8.0122004 4283848278
-1.684935 -1.3794234 8.017807 4283715640
-1.6484876 -1.3745953 8.016633 4278782217
-1.5968767 -1.3606858 8.0143957 4285300874
-1.6500647 -1.3464572 8.019249 4278979085
-1.5916324 -1.4948531 8.0235786 4284246653
-1.5927818 -1.466433 8.0255327 4284182139
-1.564698 -1.467935 8.0295296 4283853695
-1.5932202 -1.4372677 8.026186 4284312954
-1.5616344 -1.4323335 8.0254011 4284511363
-1.6204182 -1.4054457 8.0205574 4281876546
-1.5933102 -1.4077499 8.0262032 4284246390
-1.621412 -1.3768038 8.0221882 4282204996
-1.5938412 -1.3786418 8.0270262 4284049011
-1.5952818 -1.3503451 8.0295115 4284180339
-1.6230522 -1.3487006 8.0249758 4282007623
-1.6838596 -1.5109757 8.0356703 4281414446
-1.684108 -1.4788512 8.0362463 4282729793
-1.6175406 -1.4599763 8.039711 4281350466
-1.6857022 -1.4479538 8.0393391 4281940791
-1.5652959 -1.4389064 8.0304995 4283853183
-1.6938062 -1.4231384 8.0358429 4282203700
-1.6164033 -1.4208521 8.0367937 4281613644
-1.6821541 -1.4123601 8.032814 4284702275
-1.5651819 -1.4091547 8.030138 4283787900
-1.6137871 -1.3804467 8.0304651 4282074194
-1.5657113 -1.3800247 8.0309792 4283918715
-1.6808552 -1.3788922 8.0304956 4285359688
-1.654588 -1.5140946 8.0426092 4280888366
-1.622025 -1.5140352 8.0433846 4281876806
-1.6998134 -1.5007678 8.0479422 4281676073
-1.618883 -1.4993619 8.0431023 4281286214
-1.5903261 -1.4995198 8.0487623 4284379267
-1.6547551 -1.4818293 8.0430422 4282071615
-1.6219349 -1.4815235 8.0433235 4281743942
-1.6977345 -1.4627315 8.0437813 4281348137
-1.5899297 -1.4630313 8.0479746 4284510080
-1.6559758 -1.4505465 8.0454903 4282269249
-1.6226565 -1.4497954 8.0448503 4281283387
-1.5897449 -1.4267679 8.0476513 4284313214
-1.5539715 -1.4270307 8.049428 4284510336
-1.6575884 -1.4195681 8.048687 4281940543
-1.6238966 -1.4185201 8.0473919 4281153080
-1.5894859 -1.3904446 8.0471659 4284116347
-1.5672975 -1.3920087 8.0409708 4284576898
-1.6248972 -1.3869669 8.0494652 4282271052
-1.5897864 -1.3546461 8.0479107 4284115835
-1.5924457 -1.5170478 8.0501223 4284576385
-1.5909686 -1.4986986 8.0523529 4284511617
-1.5936235 -1.485747 8.052598 4284313984
-1.5617582 -1.4865004 8.054985 4284379524
-1.5543224 -1.463475 8.0501375 4284510595
-1.593338 -1.452948 8.0521441 4284116348
-1.5619025 -1.4541134 8.0554008 4284313729
-1.5936738 -1.4207581 8.0529346 4284051067
-1.5625259 -1.422189 8.0567999 4284116090
-1.7012486 -1.390411 8.057518 4284768326
-1.6636441 -1.3909669 8.0580893 4282598729
-1.6311561 -1.3956028 8.0580873 4282732890
-1.5630925 -1.3901782 8.0580816 4284181883
-1.5542152 -1.3911777 8.0500622 4284247676
-1.658901 -1.3882471 8.0513105 4282466118
-1.5944006 -1.3889176 8.0545082 4284180858
-1.6610752 -1.3540506 8.0539436 4282598727
-1.6317086 -1.3598824 8.0593586 4282732122
-1.6259439 -1.3554075 8.0516281 4282008399
-1.5952859 -1.3571862 8.0563984 4284181113
-1.6713164 -1.5080926 8.0649986 4282203713
-1.6322985 -1.5053735 8.0602837 4282009683
-1.6703647 -1.4708869 8.0630932 4281481533
-1.6681559 -1.4717151 8.0688286 4281349690
-1.632244 -1.4690785 8.0602512 4282074194
-1.5948899 -1.4598205 8.0629225 4284773763
-1.5505006 -1.4584392 8.0612736 4284445830
-1.6715333 -1.4356722 8.0656252 4281480249
-1.6675886 -1.4328183 8.0672579 4281217844
-1.6322778 -1.4328698 8.0604095 4282074964
-1.5534234 -1.4185016 8.0695095 4284313472
-1.6716857 -1.3994938 8.0660295 4281809468
-1.6722325 -1.3636516 8.0672607 4281875774
-1.6692654 -1.5111613 8.0716209 4281679165
-1.5989512 -1.4208344 8.0738573 4284379779
-1.5566621 -1.378678 8.0785904 4283985278
-1.6288826 -1.4991688 8.0822973 4282339422
-1.6031988 -1.3817704 8.0852757 4284444546
-1.7161257 -1.4418478 8.0904646 4280887339
-1.6503533 -1.426623 8.0969162 4284442469
-1.6072279 -1.3422496 8.0961313 4284247424
-1.6996967 -1.4772142 8.1046085 4280626223
-1.6548723 -1.4760196 8.1034794 4280561466
-1.6369736 -1.4604728 8.1039314 4282931046
-1.6988261 -1.4330239 8.1029005 4280757043
-1.6536289 -1.4315041 8.1007795 4281219137
-1.6987287 -1.3895509 8.1030769 4280428331
-1.6548898 -1.3893024 8.1043673 4281813069
-1.6559837 -1.4855258 8.1132679 4283389784
-1.6413835 -1.4179102 8.115612 4283127399
-1.6570115 -1.3477683 8.1101179 4281944402
-1.6044784 -1.4883248 8.1215038 4285630098
-1.6075557 -1.4372423 8.1323137 4285563793
-1.6620597 -1.3830265 8.1338968 4283718494
-1.6095818 -1.3849779 8.1397762 4285300875
-1.6489938 -1.3778993 8.1359434 4283456621
-1.6375297 -1.4323552 8.0654526 4294967040
1.1710446 -0.4700799 6.2286792 4282926638
1.1717011 -0.526748 6.2312632 4283190063
1.1715702 -0.49847451 6.2303543 4282729005
1.1083676 -0.4890604 6.2399178 4282071843
1.1801758 -0.55832154 6.2483964 4287531124
1.1350744 -0.51411664 6.2453804 4283453243
1.1528015 -0.50179696 6.2485771 4283321140
1.1526283 -0.47330591 6.247571 4283256369
1.1527773 -0.44492683 6.2472053 4283124532
1.193493 -0.53970712 6.2562122 4283322932
1.1953241 -0.50728905 6.2599549 4283651124
1.2253736 -0.50642896 6.2534142 4283914298
1.2271123 -0.47395802 6.2568655 4284573002
1.1920965 -0.56580698 6.2617779 4287072641
1.1589475 -0.53257376 6.2614512 4284637514
1.1975682 -0.47492227 6.2646151 4284046401
1.0964372 -0.46908623 6.2604752 4283388224
1.0976369 -0.44345909 6.2687726 4281807918
1.1667209 -0.57519394 6.2708135 4287992709
1.1662664 -0.5641011 6.2766628 4286216557
1.1701045 -0.54327041 6.2781925 4286216803
1.1367457 -0.50626761 6.2731581 4283256630
1.1694313 -0.50970906 6.2763157 4283913784
1.0832596 -0.47177091 6.2742577 4282663991
1.1046336 -0.47079501 6.2710752 4281874734
1.1277999 -0.47326374 6.270165 4283321663
1.1366233 -0.47751006 6.2722378 4283191607
1.0879439 -0.45112967 6.2763834 4281150241
1.1047723 -0.44988516 6.271266 4280886557
1.1277781 -0.44688711 6.2735596 4281742375
1.2041806 -0.44377327 6.2789845 4284770125
1.2183255 -0.56468743 6.2863054 4284637775
1.0735741 -0.47435442 6.2855482 4282070827
1.172363 -0.47740492 6.2826619 4283782203
1.0988187 -0.4483521 6.2854214 4281808174
1.1874882 -0.54890829 6.2937703 4286084709
1.2235388 -0.52891445 6.2997313 4283585847
1.0670061 -0.47594032 6.2940254 4282401333
1.091036 -0.45058978 6.2927613 4281676331
1.1469566 -0.45211771 6.2925453 4282071590
1.1790937 -0.44613701 6.2976708 4283125044
1.1459911 -0.5803138 6.2999997 4287664261
1.1519612 -0.56998259 6.3054256 4286216815
1.1498606 -0.54828441 6.3087096 4286547057
1.1536032 -0.54155284 6.3080821 4286019946
1.2374747 -0.54478294 6.3074522 4285164640
1.1494234 -0.51445496 6.3073301 4284770121
1.0842503 -0.45319363 6.3013768 4281807919
1.1222861 -0.45298424 6.3062315 4281610790
1.1920168 -0.56925911 6.3154407 4287335289
1.2314998 -0.53237748 6.3177505 4284901711
1.2427837 -0.50933379 6.3107624 4284505927
1.2281239 -0.49263451 6.3115873 4283782968
1.2413683 -0.49545297 6.3193812 4284506951
1.1302032 -0.48528442 6.3179855 4285888355
1.154592 -0.48259449 6.3190789 4283257147
1.2434678 -0.46725619 6.3126597 4286151776
1.0693032 -0.45815361 6.3177218 4281676591
1.0776101 -0.45590734 6.31037 4281807917
1.131863 -0.57369578 6.3234982 4286217074
1.1949142 -0.53233021 6.3232789 4283256883
1.1344095 -0.51609629 6.3274145 4286151528
1.2462807 -0.51044935 6.3253217 4285757794
1.132763 -0.50650692 6.324914 4285493341
1.108994 -0.45678023 6.3261275 4281676071
1.2332196 -0.45625576 6.3247247 4285493844
1.1268179 -0.58640081 6.3345318 4287664516
1.109161 -0.57646376 6.3369102 4286151536
1.162402 -0.5727194 6.3375664 4286743416
1.2093552 -0.55543065 6.3370051 4282993459
1.1367326 -0.54635751 6.3329334 4286151276
1.1949297 -0.5479787 6.3374596 4283059511
1.1091048 -0.48814401 6.3347044 4285560164
1.0677015 -0.47449058 6.3330221 4280360988
1.0673411 -0.46228874 6.3326993 4281215270
1.0802867 -0.46258 6.3338237 4281281063
1.0665765 -0.45946318 6.3387027 4281281317
1.0716909 -0.45153934 6.3365116 4280952098
1.0837532 -0.45154119 6.3368325 4280754978
1.0910662 -0.4591873 6.338316 4281741611
1.1305388 -0.55395663 6.3431163 4286414705
1.1143911 -0.54916137 6.3473454 4286282606
1.1667002 -0.53611577 6.3493462 4287007356
1.1309875 -0.52006763 6.3438253 4286415216
1.1157806 -0.51479959 6.3438015 4285888104
1.2107562 -0.51337093 6.3410535 4283387953
1.1974952 -0.49788174 6.3452158 4283585589
1.2025919 -0.49690637 6.3434401 4283519281
1.0834212 -0.48945421 6.3422713 4285031515
1.0882107 -0.55050015 6.3541145 4286348657
1.0894872 -0.52136129 6.3561921 4286216556
1.074237 -0.51293558 6.3532228 4286874744
1.0980026 -0.51229757 6.3512144 4285821541
1.2435844 -0.51095927 6.3563299 4283519029
1.2148483 -0.47211933 6.3528762 4283914811
1.2411959 -0.47350961 6.3569765 4285953372
1.1209859 -0.46271423 6.3592739 4281676584
1.1461718 -0.46129906 6.3504686 4281676323
1.1708157 -0.49919048 6.3606434 4284638538
1.0953679 -0.46405256 6.3675919 4281215266
1.2089499 -0.46061304 6.3602037 4282993715
1.1364444 -0.57798469 6.3710899 4286677880
1.1095327 -0.55924529 6.3752937 4286414704
1.1380035 -0.53994626 6.3757238 4286414450
1.1842004 -0.562953 6.3897109 4286677364
1.1920491 -0.54428667 6.3854995 4285492832
1.111891 -0.52574235 6.3807411 4286480243
1.1824256 -0.51909649 6.3844299 4282926636
1.2082365 -0.5156858 6.384923 4283322674
1.1399093 -0.50194353 6.3813081 4286348910
1.1487007 -0.49228698 6.3860712 4282533683
1.2094331 -0.45068842 6.386013 4283256633
1.1594403 -0.55447888 6.3958387 4286743411
1.1108462 -0.50558364 6.4085197 4285362273
1.1621302 -0.50381541 6.4044003 4284966998
1.1565316 -0.49810529 6.3205647 4294967040
1.1131418 -0.49282476 6.1986384 4281676321
1.1151621 -0.47719288 6.1940174 4281543708
1.1520108 -0.4794448 6.1956177 4282466347
1.1161588 -0.46353841 6.1950493 4281543965
1.113663 -0.45092118 6.1993032 4281675294
1.1485384 -0.53754252 6.2065344 4282465074
1.1575333 -0.52869958 6.2048206 4282597163
1.1151173 -0.50753224 6.2005463 4281675298
1.1560857 -0.50448352 6.2023816 4282729519
1.1049947 -0.49482688 6.2040663 4281742115
1.104715 -0.48064941 6.203836 4281741860
1.1353074 -0.48180026 6.2062016 4282268452
1.1056867 -0.46687648 6.2048583 4281807137
1.106739 -0.45310679 6.2059622 4281938723
1.1331944 -0.45738685 6.2026043 4282598444
1.1067736 -0.50029147 6.2196679 4282202157
1.1388174 -0.50679141 6.2121401 4282598187
1.1918168 -0.49580318 6.2157364 4282729260
1.0997211 -0.48367944 6.2125793 4281676071
1.1002518 -0.46966663 6.2131667 4281872930
1.1914722 -0.46764091 6.2144332 4283387448
1.101233 -0.45578191 6.21421 4282004516
1.0997643 -0.44114098 6.2127733 4281873445
1.1064429 -0.437787 6.2149572 4280952856
1.1377257 -0.43505833 6.2101426 4282532654
1.0977024 -0.48778027 6.2245684 4282004262
1.1207817 -0.48499694 6.2209282 4282992687
1.0994344 -0.47402343 6.2263913 4281873190
1.1710446 -0.4700799 6.2286792 4282926638
1.1010252 -0.46018299 6.2280703 4281938469
1.1202972 -0.4609288 6.2200456 4282730028
1.0981445 -0.44495127 6.2251725 4282268209
1.171441 -0.4419944 6.2287951 4283190322
1.0958446 -0.4299539 6.2228694 4281610276
1.1717011 -0.526748 6.2312632 4283190063
1.1715702 -0.49847451 6.2303543 4282729005
1.1083676 -0.4890604 6.2399178 4282071843
1.0962222 -0.47769082 6.2374411 4282135849
1.1042039 -0.46373895 6.2370243 4282861623
1.0813776 -0.43588459 6.2321601 4280886557
1.0956911 -0.43413129 6.2370448 4281610536
1.1277748 -0.43932909 6.2327528 4281742367
1.1801758 -0.55832154 6.2483964 4287531124
1.1350744 -0.51411664 6.2453804 4283453243
1.1528015 -0.50179696 6.2485771 4283321140
1.1526283 -0.47330591 6.247571 4283256369
1.1096857 -0.4449988 6.2486949 4281084446
1.1527773 -0.44492683 6.2472053 4283124532
1.1799272 -0.41620228 6.2446208 4284703817
1.193493 -0.53970712 6.2562122 4283322932
1.1953241 -0.50728905 6.2599549 4283651124
1.0647438 -0.44225928 6.2592998 4280689434
1.079983 -0.44120973 6.2545567 4280755226
1.0988164 -0.43938392 6.2549782 4281807916
1.137277 -0.42317709 6.2508521 4282334003
1.1589475 -0.53257376 6.2614512 4284637514
1.1975682 -0.47492227 6.2646151 4284046401
1.0964372 -0.46908623 6.2604752 4283388224
1.0976369 -0.44345909 6.2687726 4281807918
